ply
format ascii 1.0
element vertex 1721
property float x
property float y
property float z
end_header
-2.59852 20.15 -0.433263 
-2.62494 19.7163 -0.400567 
-2.61099 19.3309 -0.375043 
-2.59215 19.6909 -0.635562 
-2.61915 20.6644 -0.0429204 
-2.6054 19.8852 -0.401558 
-2.59191 19.8341 0.000202966 
-2.59763 20.0792 0.0211808 
-2.59117 19.9341 -0.263906 
-2.58168 19.4543 0.0129527 
-2.5959 19.3773 -0.257056 
-2.59024 19.1557 -0.495081 
-2.5821 20.5304 -0.110114 
-2.59017 20.1773 -0.220191 
-2.59072 19.277 -0.359478 
-2.62432 20.0366 -0.269805 
-2.62744 20.0229 -0.245269 
-2.63172 19.7383 -0.235143 
-2.58085 19.048 -0.133806 
-2.57439 19.4328 -0.556834 
-2.58579 19.3348 -0.264309 
-2.61566 19.5002 0.0157746 
-2.57878 20.0879 -0.216609 
-2.6079 20.2733 -0.180598 
-2.61593 19.8071 -0.377514 
-2.58531 20.3727 -0.439218 
-2.58484 19.9108 -0.249372 
-2.60265 20.133 -0.393398 
-2.58015 19.6859 -0.207888 
-2.58996 20.4843 -0.449981 
-2.59263 19.9465 -0.418279 
-2.6378 19.6801 -0.247824 
-2.6063 20.4855 0.0340417 
-2.58304 19.6664 -0.234237 
-2.60993 19.9119 -0.62122 
-2.58577 19.8929 -0.41272 
-2.61461 19.5578 -0.404495 
-2.58294 20.0337 -0.248941 
-2.61876 20.5138 -0.585886 
-2.59829 19.4065 -0.020772 
-2.62107 20.0139 -0.221384 
-2.63342 19.3319 -0.348767 
-2.62719 19.5413 -0.607879 
-2.61552 19.5743 -0.0100322 
-2.60149 20.6276 -0.58391 
-2.58792 19.3664 -0.00367865 
-2.61294 20.0491 -0.219533 
-2.59286 19.9282 -0.411225 
-2.60584 19.2259 -0.0734061 
-2.58201 19.2511 -0.333253 
-2.60095 19.7887 -0.277023 
-2.60345 19.8898 -0.255824 
-2.61244 20.0979 -0.235131 
-2.59793 19.9098 -0.222601 
-2.60679 19.3447 -0.258421 
-2.57942 20.2865 -0.408658 
-2.60939 19.3111 -0.580204 
-2.58946 20.5327 -0.628662 
-2.61478 19.1459 -0.110265 
-2.58254 19.2381 -0.327327 
-2.59192 19.312 -0.260779 
-2.60021 20.6498 -0.0190506 
-2.60367 19.9571 -0.399495 
-2.59106 19.2748 -0.0287506 
-2.57478 19.5316 -0.220884 
-2.58659 19.7321 -6.42352e-05 
-2.56842 19.4245 0.0166854 
-2.61903 20.0046 -0.422376 
-2.62441 20.5785 -0.519069 
-2.6289 19.2293 -0.526617 
-2.61714 19.6363 -0.418158 
-2.57411 19.9191 -0.60008 
-2.58958 19.309 -0.558992 
-2.61841 19.5619 -0.39552 
-2.60942 19.6394 -0.233168 
-2.62023 20.611 -0.579095 
-2.60254 19.2904 -0.277871 
-2.58664 19.7344 -0.216436 
-2.60128 20.5592 0.00784461 
-2.6244 19.8878 -0.261209 
-2.61574 19.4262 -0.594926 
-2.59931 19.7841 -0.253924 
-2.59122 19.3474 -0.259768 
-2.6205 20.335 0.0201878 
-2.57329 19.2079 -0.517931 
-2.57653 19.989 -0.608643 
-2.59974 19.7247 -0.428318 
-2.62348 19.7809 -0.419277 
-2.59766 20.0319 -0.208071 
-2.61598 19.2311 -0.289132 
-2.5964 20.2864 -0.406626 
-2.61 19.6869 -0.248419 
-2.60177 19.3589 -0.386428 
-2.57503 19.0613 -0.474458 
-2.5992 19.4223 -0.382498 
-2.59895 20.1979 -0.598081 
-2.6058 20.3274 -0.43467 
-2.61261 19.5103 -0.569747 
-2.58217 20.0022 -0.256611 
-2.59116 19.9062 -0.401122 
-2.59211 20.3057 -0.00126635 
-2.57655 19.1126 -0.499549 
-2.62177 19.2553 -0.333283 
-2.62167 19.9694 -0.428749 
-2.60583 20.0586 -0.215297 
-2.58445 19.7518 -0.591014 
-2.60337 20.5395 0.0129798 
-2.59349 20.3021 -0.62115 
-2.60933 19.3734 -0.00374226 
-2.59491 19.9939 -0.393239 
-2.61594 20.1321 -0.233499 
-2.61084 19.2539 -0.267348 
-2.60271 20.6386 -0.0343627 
-2.60355 19.4747 0.0097502 
-2.57692 20.0969 0.0298551 
-2.61617 19.3689 -0.224522 
-2.58509 19.4793 -0.376136 
-2.58769 20.5672 -0.573104 
-2.58539 19.1298 -0.4899 
-2.5821 20.6106 0.00960907 
-2.60075 20.0327 -0.255846 
-2.57723 19.1387 -0.107961 
-2.60646 20.5308 0.0394455 
-2.58447 19.5529 -0.194026 
-2.61299 19.3904 0.00109332 
-2.57719 19.6802 -0.227973 
-2.61797 19.2747 -0.264793 
-2.57442 19.7537 -0.229117 
-2.59791 19.2069 -0.331999 
-2.6215 20.4065 -0.137584 
-2.57397 19.3895 -0.258362 
-2.57209 19.1348 -0.486501 
-2.60196 20.5049 -0.105753 
-2.57084 19.293 -0.263915 
-2.57747 20.0333 0.0294915 
-2.62084 19.1738 -0.510688 
-2.59191 20.6463 -0.0985773 
-2.59177 19.9657 -0.616182 
-2.61097 19.4034 -0.566702 
-2.57843 20.5713 -0.117764 
-2.61317 19.7036 -0.427512 
-2.59434 19.3017 -0.38854 
-2.61412 19.9988 -0.243354 
-2.61014 20.0537 -0.0218987 
-2.60833 19.5596 -0.22339 
-2.60386 20.3601 -0.456118 
-2.61309 20.6142 -0.101909 
-2.57114 19.5712 -0.416894 
-2.58302 19.8538 -0.231334 
-2.58287 19.8482 -0.427269 
-2.61025 19.5941 0.000303474 
-2.61703 19.3942 -0.216293 
-2.59528 19.7491 -0.245494 
-2.62548 20.6682 -0.0636206 
-2.59824 20.3368 0.0338535 
-2.56835 19.568 -0.588542 
-2.5908 19.4828 -0.215926 
-2.58814 20.2656 -0.44653 
-2.62489 19.8011 -0.022157 
-2.58826 19.3755 -0.549633 
-2.61887 20.2048 -0.176439 
-2.61476 19.4241 -0.590114 
-2.61153 19.8654 -0.21718 
-2.62622 19.7168 -0.212767 
-2.56966 20.3917 -0.618742 
-2.58439 20.4329 -0.136473 
-2.56438 20.6189 -0.525106 
-2.59609 20.1969 -0.451207 
-2.61664 19.2028 -0.289715 
-2.60594 19.6838 -0.631432 
-2.56921 20.5168 -0.4725 
-2.58399 19.1977 -0.528396 
-2.62036 19.8015 -0.646345 
-2.60433 19.3685 -0.574898 
-2.60258 20.616 -0.0740378 
-2.60161 19.8993 -0.63298 
-2.59874 20.6205 -0.518387 
-2.61646 20.5972 -0.544109 
-2.57907 20.3402 -0.635239 
-2.59442 19.1786 -0.0687518 
-2.61716 19.5309 -0.188405 
-2.57394 19.3844 0.00163992 
-2.56652 19.05 -0.494212 
-2.56935 19.4425 0.00647157 
-2.59373 20.5562 0.0327707 
-2.61077 20.5864 -0.569512 
-2.59107 20.4078 0.0273578 
-2.59258 19.2438 -0.360014 
-2.5745 20.4893 -0.616898 
-2.57539 20.169 -0.180233 
-2.5888 19.8359 -0.0197279 
-2.5838 19.8638 0.0201528 
-2.57199 19.4273 -0.0186954 
-2.60447 19.2706 -0.269483 
-2.60505 19.5332 -0.00218953 
-2.61925 19.4365 0.0285976 
-2.59581 19.9186 -0.422609 
-2.57629 19.0549 -0.463092 
-2.60073 19.8249 0.0245152 
-2.5878 19.5253 -0.588231 
-2.62357 19.6572 0.0207545 
-2.58918 20.4423 -0.441615 
-2.60992 19.9594 -0.626942 
-2.60509 19.793 -0.206615 
-2.59365 19.3691 -0.556882 
-2.6114 19.7093 0.00749187 
-2.61171 19.5101 -0.439153 
-2.58216 20.2975 -0.479028 
-2.61258 19.4569 0.00690375 
-2.60822 20.3615 -0.453949 
-2.58324 19.3198 -0.553253 
-2.59741 19.5927 -0.606323 
-2.57985 20.6171 -0.495182 
-2.61282 19.099 -0.143032 
-2.5805 20.4066 0.0336867 
-2.57061 19.8871 -0.651248 
-2.59776 19.3434 -0.213849 
-2.61418 20.6604 -0.0415565 
-2.58382 19.8527 -0.242309 
-2.57265 19.0691 -0.514361 
-2.61269 19.6479 -0.435514 
-2.59471 19.6151 0.0190058 
-2.57369 19.2109 -0.329326 
-2.60259 19.1879 -0.354316 
-2.57531 19.1899 -0.499739 
-2.61172 19.8082 -0.204149 
-2.57138 20.582 -0.473443 
-2.61088 19.97 -0.615451 
-2.59674 19.8904 -0.434555 
-2.57321 20.6325 -0.0573634 
-2.5887 20.1312 0.026892 
-2.59859 19.9997 0.00781262 
-2.62502 19.8957 -0.429349 
-2.59257 20.3349 -0.618649 
-2.57475 20.1511 0.0105531 
-2.5846 19.2601 -0.0511602 
-2.56828 20.3658 -0.130147 
-2.57974 20.4661 0.00710897 
-2.57481 20.4738 -0.120027 
-2.58777 20.2241 -0.00682391 
-2.57783 19.3156 -0.571528 
-2.61164 19.3442 -0.0219165 
-2.59132 19.4409 -0.60304 
-2.6016 19.8637 -0.436189 
-2.59332 20.4355 -0.625136 
-2.59719 19.9645 0.0180336 
-2.58402 19.8972 -0.00649457 
-2.58526 19.7639 -0.451835 
-2.58882 19.861 0.0278651 
-2.56203 19.2807 -0.229767 
-2.60497 20.2226 -0.169912 
-2.56874 19.2278 -0.349635 
-2.59755 19.4716 0.0346956 
-2.56698 20.4335 -0.136092 
-2.60591 19.5491 -0.600043 
-2.62107 19.5839 -0.232631 
-2.60334 19.4076 -0.0125402 
-2.6119 19.4365 -0.193435 
-2.58344 19.4987 -0.401478 
-2.61825 19.6327 -0.64108 
-2.60566 19.8376 -0.620559 
-2.59902 19.2533 -0.269359 
-2.58387 20.2489 -0.443161 
-2.60659 20.4027 -0.459018 
-2.56361 20.5554 0.0034842 
-2.57147 19.1484 -0.475819 
-2.5932 19.6792 -0.43443 
-2.5798 19.2315 -0.512576 
-2.6105 19.5307 -0.00538867 
-2.593 20.2587 -0.444016 
-2.57801 19.7919 -0.418879 
-2.58227 19.7307 -0.633475 
-2.58323 20.6433 -0.524534 
-2.5812 19.1829 -0.360836 
-2.60886 20.2694 -0.635753 
-2.58777 19.7376 -0.2215 
-2.59509 19.6714 -0.220647 
-2.58695 19.9059 -0.629296 
-2.58848 20.6031 0.0269204 
-2.56219 19.4215 -0.0143262 
-2.56743 20.6192 0.0100457 
-2.56833 19.2021 -0.318831 
-2.5965 20.6653 -0.0459079 
-2.58239 19.0954 -0.128357 
-2.59413 19.1732 -0.507071 
-2.60275 20.5567 -0.615452 
-2.60584 20.114 -0.209125 
-2.57401 19.1483 -0.0887206 
-2.58442 20.1857 -0.196978 
-2.61341 20.2982 -0.603376 
-2.58993 19.8629 0.00819696 
-2.56243 19.2058 -0.0933625 
-2.5776 20.4683 -0.603054 
-2.58615 20.2382 0.00915587 
-2.56482 20.0707 -0.208457 
-2.61395 19.5303 -0.646616 
-2.56199 19.4254 -0.57575 
-2.59546 19.5918 -0.428399 
-2.60486 19.8947 0.0159714 
-2.58229 20.6003 0.00937452 
-2.56693 19.363 -0.0332996 
-2.59386 20.1051 0.00529209 
-2.59358 19.2028 -0.285913 
-2.61891 19.1663 -0.541935 
-2.57671 20.1306 -0.188719 
-2.5581 20.2098 -0.628024 
-2.60598 19.8174 -0.216929 
-2.61977 19.6295 -0.628606 
-2.56426 20.1799 -0.162951 
-2.56837 20.6602 -0.04537 
-2.60798 20.6272 -0.0660366 
-2.60356 19.3265 -0.0603758 
-2.57239 19.0844 -0.466724 
-2.58037 19.8324 -0.447753 
-2.58254 19.6778 -0.44508 
-2.60617 20.3473 -0.641656 
-2.60427 19.2268 -0.347737 
-2.6028 19.0586 -0.151982 
-2.59815 19.4541 -0.398564 
-2.59291 20.5823 -0.576731 
-2.59794 19.8405 -0.0114102 
-2.56295 20.6037 -0.51595 
-2.57761 19.8155 -0.207279 
-2.59621 20.6418 -0.0430921 
-2.56812 19.1205 -0.49314 
-2.59851 19.8442 -0.183096 
-2.58633 19.1759 -0.49855 
-2.59433 20.6598 -0.0267539 
-2.59323 19.6402 0.0220676 
-2.60469 20.2157 0.0325346 
-2.60126 20.0516 -0.618718 
-2.58801 19.2793 -0.0790889 
-2.59825 20.5779 -0.5744 
-2.57549 19.9299 -0.451081 
-2.60225 19.351 -0.398349 
-2.6124 20.1606 -0.476279 
-2.56505 19.5366 -0.600179 
-2.59511 19.6116 -0.606585 
-2.61587 20.4366 -0.612273 
-2.59113 19.1872 -0.0969135 
-2.55433 20.656 -0.0438332 
-2.57688 19.3868 0.00286458 
-2.58998 19.6277 -0.618435 
-2.57246 19.4438 -0.000572614 
-2.58607 19.8177 -0.437907 
-2.61635 19.7942 -0.210829 
-2.58332 20.5042 -0.607915 
-2.58151 19.2846 -0.370847 
-2.61481 20.1563 0.0200812 
-2.56799 20.2798 -0.45422 
-2.58971 20.1349 -0.172966 
-2.5706 19.5118 -0.434842 
-2.57472 19.2896 -0.208782 
-2.61517 19.3494 -0.558292 
-2.59412 19.5644 0.0287885 
-2.60429 19.5872 0.0249409 
-2.56219 19.889 -0.42586 
-2.56757 19.4378 -0.188962 
-2.61113 19.2629 -0.528651 
-2.5796 19.1822 -0.289866 
-2.60896 19.1874 -0.314113 
-2.57222 19.3691 -0.21312 
-2.57324 20.4005 -0.133672 
-2.56656 19.5903 -0.628165 
-2.5766 20.6299 -0.549208 
-2.5523 19.8119 0.0126507 
-2.55692 19.6614 -0.174349 
-2.58208 20.1884 -0.195114 
-2.60676 19.2782 -0.0414463 
-2.59857 19.1603 -0.314359 
-2.57875 19.9636 -0.641612 
-2.57714 19.2273 -0.0627245 
-2.55973 20.6327 -0.0570358 
-2.59827 19.6266 -0.188174 
-2.5725 20.0864 -0.627351 
-2.5975 19.4199 -0.199454 
-2.57347 20.4977 0.0257788 
-2.57636 20.0332 -0.211232 
-2.5999 20.4349 0.0180703 
-2.55298 20.5337 -0.470313 
-2.56853 19.3659 -0.0031443 
-2.55053 19.3255 -0.00312303 
-2.60758 19.5172 -0.596859 
-2.58363 19.2701 -0.512198 
-2.56317 19.2002 -0.495135 
-2.58772 19.6045 -0.166626 
-2.5829 20.0187 -0.194884 
-2.57608 20.5499 0.0359777 
-2.56337 19.0896 -0.0889102 
-2.5999 19.4999 -0.621583 
-2.59286 20.2219 -0.431552 
-2.57771 19.5723 -0.426528 
-2.56889 20.4046 0.0433158 
-2.56856 19.1616 -0.120741 
-2.56806 19.927 -0.627185 
-2.60719 19.8272 -0.623265 
-2.58752 19.4642 0.00124843 
-2.5894 20.1301 -0.452767 
-2.5591 20.4328 0.0356185 
-2.59122 19.8728 -0.184201 
-2.55687 20.355 -0.12606 
-2.58316 20.0989 -0.189893 
-2.58628 20.5216 -0.634377 
-2.57667 20.0914 0.000563369 
-2.60126 19.6636 -0.619881 
-2.58267 19.3219 -0.43629 
-2.56976 19.899 -0.650898 
-2.58276 19.7153 -0.446802 
-2.57511 19.4329 -0.586883 
-2.56121 19.6656 -0.451958 
-2.60428 19.6229 -0.190345 
-2.60739 20.0116 -0.658825 
-2.55975 20.5767 -0.598826 
-2.579 20.5994 -0.093488 
-2.57462 20.6176 -0.018166 
-2.55144 19.6237 -0.598876 
-2.58768 19.5601 -0.611184 
-2.57204 19.7168 -0.214434 
-2.58712 19.8936 -0.652134 
-2.58725 19.738 -0.00716387 
-2.56961 19.1779 -0.307532 
-2.58792 19.537 0.0226678 
-2.56695 19.275 -0.21674 
-2.55033 20.5386 -0.487074 
-2.59227 19.4982 -0.429351 
-2.5754 19.5946 -0.5986 
-2.58839 19.1695 -0.329805 
-2.5907 19.3941 -0.00294112 
-2.59447 19.8501 -0.458699 
-2.58339 19.4861 -0.217255 
-2.5796 19.176 -0.275202 
-2.57522 19.9732 -0.442448 
-2.58199 19.905 -0.456596 
-2.59944 20.1 -0.484708 
-2.59447 20.6112 -0.586826 
-2.58483 19.6562 -0.443071 
-2.57681 19.1579 -0.130106 
-2.59466 19.5032 -0.594894 
-2.61076 20.3928 -0.141234 
-2.57254 20.4881 -0.616026 
-2.56153 20.3879 -0.131029 
-2.55602 19.9784 -0.444576 
-2.58899 19.8537 -0.451286 
-2.58138 20.3638 -0.473075 
-2.58239 19.1263 -0.0988523 
-2.60354 19.5329 -0.60466 
-2.60173 19.1484 -0.26438 
-2.56517 20.5223 -0.493039 
-2.55628 20.4791 -0.593721 
-2.60114 19.4756 -0.606671 
-2.59132 19.1334 -0.329656 
-2.56247 19.1821 -0.356892 
-2.58206 20.3705 -0.13156 
-2.59531 19.2478 -0.536241 
-2.58166 19.7388 -0.199427 
-2.5617 19.8104 -0.636748 
-2.56744 20.2393 -0.170704 
-2.61127 20.0135 -0.480964 
-2.60671 19.2339 -0.071924 
-2.58071 20.6143 -0.0464315 
-2.56424 19.5432 -0.578037 
-2.60072 19.3119 -0.522562 
-2.56944 19.5516 -0.609029 
-2.58919 19.2288 -0.242725 
-2.59431 20.4369 0.0343652 
-2.577 19.2572 -0.392615 
-2.56294 19.0904 -0.488398 
-2.55087 19.2714 -0.0587625 
-2.57815 19.6354 0.00340739 
-2.59281 20.0461 -0.00227483 
-2.59549 19.4304 0.00770719 
-2.56256 19.1782 -0.276945 
-2.60286 20.2995 -0.614816 
-2.56477 20.3653 -0.470796 
-2.57508 20.4803 -0.476063 
-2.5926 19.6779 -0.645257 
-2.57347 20.4161 -0.512328 
-2.57928 19.9879 -0.211218 
-2.55721 19.1548 -0.489481 
-2.59378 19.6088 -0.483434 
-2.60387 19.3364 -0.525397 
-2.57312 19.4669 -0.189448 
-2.57724 19.4484 -0.174537 
-2.58235 20.5488 -0.621369 
-2.55973 19.7003 0.0429027 
-2.56361 19.7704 -0.187501 
-2.57594 19.9978 0.0415127 
-2.58142 20.5352 0.0370781 
-2.58254 19.1509 -0.477986 
-2.57011 20.181 -0.448186 
-2.58162 20.5041 -0.600413 
-2.55397 20.5158 -0.102103 
-2.58397 19.7706 0.0325897 
-2.59096 20.575 -0.551212 
-2.55642 19.4306 0.0061731 
-2.59409 19.8431 -0.451137 
-2.57637 20.5003 -0.614492 
-2.55014 19.592 -0.454441 
-2.57326 19.6333 0.0418281 
-2.60925 19.6016 -0.636701 
-2.58633 19.1769 -0.243943 
-2.5658 19.4571 -0.580861 
-2.58666 19.9366 -0.161906 
-2.59041 20.445 -0.62981 
-2.60797 19.1474 -0.319215 
-2.58249 19.5048 -0.615298 
-2.56523 20.503 -0.635628 
-2.57731 19.6351 -0.640629 
-2.59724 19.9489 -0.204739 
-2.59273 19.0186 -0.496003 
-2.59314 20.143 -0.155792 
-2.58755 19.3581 -0.0106776 
-2.58263 19.9298 -0.178648 
-2.55485 19.1211 -0.111129 
-2.55885 19.6156 -0.449246 
-2.56419 19.1211 -0.4844 
-2.59766 20.549 -0.585057 
-2.5762 19.16 -0.513561 
-2.57371 19.8008 -0.488469 
-2.55943 19.3601 -0.43812 
-2.5942 20.6227 0.0237461 
-2.57618 19.058 -0.118732 
-2.55367 20.1254 0.0453807 
-2.59448 19.5581 -0.175762 
-2.5914 20.1577 -0.44834 
-2.57348 19.1161 -0.490011 
-2.57612 19.9602 -0.644833 
-2.57265 20.5245 -0.58618 
-2.59432 20.0636 -0.64981 
-2.5657 19.6726 -0.448355 
-2.57079 19.12 -0.319558 
-2.5761 20.1595 -0.172468 
-2.58414 19.4452 -0.567268 
-2.59986 20.5812 -0.065588 
-2.59301 19.7446 -0.447244 
-2.58085 19.7504 -0.616128 
-2.57442 20.0084 -0.450554 
-2.57841 19.4706 0.0177578 
-2.56681 19.8867 -0.4706 
-2.55931 19.7351 -0.620715 
-2.57326 19.1442 -0.117821 
-2.56603 19.739 -0.477614 
-2.58601 19.219 -0.219184 
-2.56831 19.2024 -0.515876 
-2.5586 20.1133 0.0543296 
-2.54494 19.2395 -0.50072 
-2.54931 19.9466 -0.455114 
-2.55564 19.5329 0.0199471 
-2.56927 19.989 -0.158737 
-2.55188 19.5988 -0.608127 
-2.5545 19.5906 -0.198947 
-2.58284 19.2802 -0.390405 
-2.57947 20.5374 -0.611531 
-2.55671 19.2806 -0.0767307 
-2.56354 19.8888 0.0444302 
-2.56617 19.1912 -0.388004 
-2.58835 20.5865 -0.0760792 
-2.59127 19.481 -0.56352 
-2.5702 19.0699 -0.483107 
-2.55659 19.5763 -0.624643 
-2.57347 19.1207 -0.335616 
-2.55309 19.5771 -0.586525 
-2.56153 19.386 -0.549757 
-2.5687 20.3224 0.0267024 
-2.59045 20.0763 -0.153065 
-2.56952 20.2023 0.034618 
-2.56609 20.5008 -0.519566 
-2.5547 19.8979 -0.637082 
-2.55132 19.2835 -0.19912 
-2.56523 19.621 -0.6146 
-2.60041 20.5329 -0.101871 
-2.59097 19.6087 -0.617718 
-2.5832 20.0095 -0.172902 
-2.60363 19.0256 -0.512077 
-2.58622 19.4796 0.0228487 
-2.57351 20.0183 -0.452247 
-2.57518 20.5473 0.0146005 
-2.54707 19.9116 -0.481404 
-2.55654 19.7769 -0.630325 
-2.57982 20.021 -0.662099 
-2.56409 19.2178 -0.391741 
-2.56828 19.2375 -0.0613649 
-2.59515 19.1535 -0.377503 
-2.5874 20.2642 -0.486376 
-2.56793 19.4299 -0.412983 
-2.60186 19.1327 -0.341521 
-2.55022 19.9575 -0.17954 
-2.57005 19.6603 -0.622722 
-2.55674 20.0769 -0.623168 
-2.55426 19.4833 0.0398805 
-2.56094 19.7731 -0.446069 
-2.57636 19.965 -0.449173 
-2.55471 19.5454 -0.149988 
-2.56324 20.6363 -0.00571776 
-2.58427 19.6103 -0.443013 
-2.58125 19.263 -0.226079 
-2.60731 19.2967 -0.0800625 
-2.5769 19.213 -0.530903 
-2.5687 19.9617 0.0192343 
-2.60206 19.3451 -0.199306 
-2.56902 20.4135 -0.134427 
-2.57751 19.8698 -0.459951 
-2.56941 19.5471 0.0261654 
-2.56917 20.5803 -0.567456 
-2.57783 19.5509 -0.447919 
-2.55407 20.626 -0.0364412 
-2.57297 19.4242 -0.0294259 
-2.58151 20.4909 -0.510978 
-2.55564 20.0422 -0.489238 
-2.56775 19.3746 -0.527385 
-2.56445 19.1246 -0.302589 
-2.56381 20.1204 -0.477448 
-2.57933 20.2017 -0.660594 
-2.53943 19.5941 0.0261678 
-2.58638 20.027 -0.160364 
-2.59396 20.1179 0.0316169 
-2.58088 20.1058 -0.659703 
-2.58885 19.2536 -0.38219 
-2.54468 20.4625 -0.0977335 
-2.55961 19.9594 -0.651407 
-2.55923 19.411 -0.165843 
-2.56858 19.1593 -0.372278 
-2.5788 20.5719 -0.614998 
-2.5617 20.4724 -0.112419 
-2.57285 20.5771 -0.537454 
-2.54146 20.4544 0.0629975 
-2.56781 20.2163 -0.625853 
-2.54591 19.1774 -0.489278 
-2.54268 20.1813 -0.126269 
-2.59294 19.6373 -0.643317 
-2.54723 19.4613 -0.567036 
-2.57423 19.2333 -0.521338 
-2.57222 19.42 -0.469066 
-2.56248 20.0575 -0.647426 
-2.56889 19.703 -0.618356 
-2.57168 19.414 -0.561893 
-2.58027 20.3559 0.0591759 
-2.58786 19.8764 -0.191864 
-2.59681 19.2351 -0.227935 
-2.5712 20.3854 -0.485016 
-2.56416 19.1358 -0.362548 
-2.57496 19.8867 -0.494517 
-2.57841 20.5521 -0.609467 
-2.54899 19.5828 -0.598975 
-2.5577 20.1244 -0.138754 
-2.58739 20.6094 -0.0222714 
-2.59666 20.3952 -0.121323 
-2.55158 20.4174 0.053461 
-2.59149 19.4856 -0.581237 
-2.56358 20.2324 -0.492498 
-2.59857 19.2281 -0.407057 
-2.55702 19.1505 -0.0973289 
-2.55773 19.6912 -0.637638 
-2.56364 20.4643 0.00830223 
-2.55453 19.3339 -0.527224 
-2.56062 19.6393 -0.477783 
-2.57017 19.6259 -0.617432 
-2.55615 20.4006 -0.606312 
-2.5857 19.8054 -0.00749336 
-2.58163 19.519 -0.608252 
-2.5456 19.1565 -0.263339 
-2.54306 19.8227 -0.662512 
-2.5812 20.4852 -0.112046 
-2.59192 19.3651 -0.44759 
-2.59164 19.0773 -0.108551 
-2.56717 20.3867 0.0403289 
-2.56487 19.3103 -0.501733 
-2.54347 19.1638 -0.504403 
-2.57672 19.6062 -0.619522 
-2.58896 20.5474 -0.560694 
-2.55192 19.9587 -0.167318 
-2.54452 20.1582 -0.651223 
-2.54786 19.0439 -0.471933 
-2.57241 19.4865 -0.469352 
-2.55251 19.3703 -0.434628 
-2.54457 20.5665 -0.515354 
-2.59918 19.8778 0.016134 
-2.56878 19.8374 -0.484678 
-2.56363 20.3989 -0.126501 
-2.55991 20.5657 -0.547383 
-2.5696 20.2546 0.0369918 
-2.567 20.0087 0.0439379 
-2.58787 20.0753 0.0262805 
-2.56386 19.4095 -0.00309201 
-2.53564 19.5493 0.0130579 
-2.58677 19.7513 -0.650929 
-2.56875 19.2821 -0.525498 
-2.59417 20.138 -0.496588 
-2.55332 19.8584 -0.1683 
-2.54699 19.7325 -0.184501 
-2.54858 19.5226 -0.60688 
-2.57575 19.0871 -0.111158 
-2.58153 19.3738 -0.469476 
-2.59068 20.056 -0.145183 
-2.57937 19.2815 -0.0666825 
-2.56522 19.0897 -0.478869 
-2.58545 20.2261 -0.134462 
-2.58569 19.7648 -0.184058 
-2.59813 20.5084 -0.631745 
-2.57951 19.6558 -0.648242 
-2.54546 19.1292 -0.389486 
-2.55293 20.0512 -0.473073 
-2.58663 19.755 -0.187486 
-2.57879 20.5065 -0.63679 
-2.57057 19.6439 -0.625194 
-2.58584 19.9085 -0.668532 
-2.55103 20.5846 -0.577752 
-2.56802 20.5995 -0.00295298 
-2.55359 19.2628 -0.395433 
-2.58823 19.4579 -0.561653 
-2.55911 20.4362 -0.654114 
-2.58705 19.1033 -0.263305 
-2.5749 20.5137 -0.50075 
-2.58412 19.3219 -0.543009 
-2.56383 20.047 -0.478594 
-2.56224 19.3626 -0.0251626 
-2.56755 19.543 0.0252617 
-2.55304 19.7562 -0.661217 
-2.5768 19.706 -0.656236 
-2.58412 19.6139 -0.463089 
-2.58297 19.4396 -0.564409 
-2.5486 19.3791 -0.518249 
-2.54678 19.3282 -0.543707 
-2.56447 20.5981 -0.0614464 
-2.5548 19.1008 -0.344443 
-2.57929 20.5081 0.0187454 
-2.55119 19.2794 -0.0835158 
-2.54793 19.7679 0.0484333 
-2.57926 19.9326 0.0296596 
-2.59239 19.0773 -0.130969 
-2.56328 19.4579 -0.465279 
-2.53716 19.5657 -0.461419 
-2.55065 20.5576 -0.534321 
-2.54719 20.1372 0.0378673 
-2.54528 20.2189 -0.463624 
-2.56182 20.3376 0.0547446 
-2.54622 20.4923 -0.61724 
-2.55218 19.133 -0.256868 
-2.59557 20.4104 -0.631142 
-2.55122 20.5873 -0.0417292 
-2.56507 19.2521 -0.0425758 
-2.56168 19.4159 -0.445053 
-2.56623 20.425 0.0423836 
-2.55301 19.3105 -0.219029 
-2.5858 20.0943 -0.487995 
-2.57858 19.201 -0.503647 
-2.54523 20.4782 0.0349501 
-2.57789 20.0455 0.0445524 
-2.5893 20.1445 -0.164601 
-2.59749 20.5712 -0.0554738 
-2.58202 20.1478 0.0593056 
-2.58535 19.7123 -0.499528 
-2.54878 19.2749 -0.438011 
-2.55507 19.6971 -0.619618 
-2.59324 20.1767 -0.667512 
-2.53459 19.364 -0.195583 
-2.58804 19.7454 -0.482565 
-2.53939 19.537 0.0508829 
-2.58881 19.0961 -0.373025 
-2.56761 20.5692 0.0314066 
-2.55942 19.8604 -0.651181 
-2.58228 20.5698 -0.572268 
-2.58721 19.1861 -0.214701 
-2.57456 19.7366 -0.482068 
-2.57031 19.3404 -0.537377 
-2.57307 19.6309 -0.612783 
-2.57812 19.8565 -0.160361 
-2.56656 19.5118 0.00850622 
-2.56083 19.7244 -0.64914 
-2.58104 19.6979 0.0209977 
-2.57888 19.3943 -0.470845 
-2.58499 19.2787 -0.0476962 
-2.57583 20.2241 0.00878459 
-2.56872 19.7711 -0.617553 
-2.53176 20.3915 -0.501922 
-2.57213 20.5969 -0.0230285 
-2.56897 20.2669 -0.634931 
-2.58064 19.4595 -0.555637 
-2.55304 19.0801 -0.32593 
-2.57513 20.2206 -0.619578 
-2.54583 20.0305 -0.180651 
-2.55495 20.4463 -0.64913 
-2.57654 19.3607 -0.44257 
-2.55426 19.8922 -0.492088 
-2.58511 19.8175 -0.66471 
-2.58821 19.1129 -0.335274 
-2.55068 19.9334 -0.171369 
-2.54365 19.2732 -0.494542 
-2.54734 19.3988 -0.562768 
-2.59277 19.4128 -0.47001 
-2.55835 19.502 0.0414875 
-2.55139 20.1418 -0.49717 
-2.56604 19.6673 -0.178257 
-2.57937 20.1694 0.0439879 
-2.58465 19.1347 -0.373792 
-2.54912 19.5859 -0.602805 
-2.56269 20.0001 -0.463012 
-2.58996 19.1857 -0.491692 
-2.56289 19.9613 0.0513659 
-2.55562 20.0242 -0.49339 
-2.55954 19.5846 -0.624004 
-2.55957 19.3023 -0.063715 
-2.54799 19.4655 -0.163021 
-2.59166 19.146 -0.491177 
-2.57605 20.468 -0.61534 
-2.56753 19.6201 -0.609543 
-2.58296 19.3402 -0.450612 
-2.56337 19.363 -0.467349 
-2.56866 20.2771 -0.103231 
-2.57563 19.0591 -0.508402 
-2.55715 19.1229 -0.506328 
-2.57693 19.2242 -0.524599 
-2.55791 19.1587 -0.490909 
-2.55353 20.6006 -0.0526468 
-2.5434 20.3526 0.0611412 
-2.55576 19.3279 -0.201317 
-2.58158 19.8091 -0.65779 
-2.56324 20.5417 -0.58469 
-2.54164 20.0734 -0.128009 
-2.56196 20.4043 0.0312577 
-2.53811 20.6044 -0.0225112 
-2.56773 20.1374 -0.472878 
-2.58585 19.5471 -0.466757 
-2.55526 19.4748 -0.0180215 
-2.54971 19.1663 -0.0915106 
-2.55523 19.1514 -0.395897 
-2.57499 20.1717 -0.149419 
-2.57628 19.6318 -0.163196 
-2.55034 19.8499 -0.148463 
-2.56965 19.5743 0.0318522 
-2.57306 19.6282 -0.620458 
-2.53936 19.6905 -0.657317 
-2.55478 19.6947 -0.164563 
-2.56768 20.3178 -0.662754 
-2.53521 19.1831 -0.365029 
-2.56827 19.2809 -0.509092 
-2.58403 20.485 -0.631677 
-2.58652 19.054 -0.10062 
-2.57222 19.2173 -0.421754 
-2.58606 20.4591 -0.614729 
-2.57523 20.3872 -0.632865 
-2.56691 19.702 -0.628553 
-2.54122 19.1723 -0.427509 
-2.55268 19.2798 -0.0469514 
-2.55448 20.5535 -0.607767 
-2.56456 20.4928 -0.510776 
-2.5486 20.5732 -0.0425812 
-2.55083 19.9771 0.0291555 
-2.56726 19.5316 -0.145229 
-2.59175 19.2383 -0.49033 
-2.5455 20.5909 -0.00577279 
-2.58212 19.0993 -0.469743 
-2.58223 19.7619 -0.636652 
-2.57275 19.1264 -0.0982517 
-2.57375 20.4964 -0.643962 
-2.53848 19.1508 -0.389303 
-2.55675 19.8714 -0.657053 
-2.54227 19.1877 -0.490151 
-2.58588 19.9274 -0.516933 
-2.55756 19.4559 -0.469702 
-2.54255 19.6196 0.0366165 
-2.54938 20.2681 -0.671523 
-2.5528 19.0861 -0.303971 
-2.58749 19.3287 -0.167186 
-2.55054 19.5177 -0.589285 
-2.5628 20.5103 -0.0678983 
-2.54139 19.3807 0.00539204 
-2.54601 20.4622 -0.526014 
-2.53299 20.5267 0.0627659 
-2.58206 19.2788 -0.487013 
-2.57797 19.4794 -0.000392486 
-2.54994 19.4325 -0.495281 
-2.54514 19.8544 -0.673672 
-2.55319 19.4531 -0.456248 
-2.56111 20.1715 -0.514777 
-2.57347 19.3637 -0.54747 
-2.56364 19.3726 -0.491443 
-2.58308 19.5413 -0.622315 
-2.53705 20.4407 -0.645351 
-2.56663 19.489 -0.485966 
-2.54814 20.4942 -0.620469 
-2.55918 20.5749 0.0204311 
-2.5586 19.345 -0.0444965 
-2.54449 20.5561 -0.54238 
-2.53298 19.4782 0.0187745 
-2.56311 20.5557 -0.588227 
-2.57725 19.3399 -0.445438 
-2.54973 19.1447 -0.233268 
-2.58697 19.2362 -0.428004 
-2.55872 19.6839 -0.608004 
-2.54351 19.9983 -0.512009 
-2.56661 19.1138 -0.0819145 
-2.53357 20.3643 -0.64835 
-2.53096 19.4134 -0.533592 
-2.52953 20.3511 0.0688178 
-2.5607 19.1306 -0.388342 
-2.57023 19.2775 -0.0593144 
-2.55426 19.5227 -0.500833 
-2.56589 19.2799 -0.0570951 
-2.58078 19.249 -0.217836 
-2.58174 19.2494 -0.458986 
-2.57952 19.4223 -0.498068 
-2.5331 20.5377 -0.595738 
-2.55294 20.143 -0.13994 
-2.55594 19.2416 -0.222058 
-2.54427 19.2092 -0.429222 
-2.54479 20.1209 -0.109076 
-2.56077 19.3864 -0.476603 
-2.56091 20.3958 0.0413874 
-2.56442 19.6106 -0.605782 
-2.58901 19.7859 0.0492071 
-2.55992 20.1986 -0.501424 
-2.57743 20.5141 -0.0728569 
-2.54244 19.3068 -0.437936 
-2.57613 19.9449 -0.482219 
-2.55864 19.1816 -0.206687 
-2.5533 20.5194 -0.614967 
-2.54363 19.3457 -0.504737 
-2.56342 20.0719 -0.48835 
-2.56485 20.1258 -0.506519 
-2.52852 19.9909 -0.652946 
-2.55928 19.6565 -0.628484 
-2.56903 19.0764 -0.4621 
-2.57129 19.4933 -0.587234 
-2.55974 19.6426 -0.150099 
-2.56525 19.6949 -0.642653 
-2.55135 19.4606 -0.00883548 
-2.57057 19.8398 -0.499164 
-2.54052 19.7245 0.0244392 
-2.55875 19.1734 -0.409923 
-2.55798 19.1206 -0.479567 
-2.54992 19.4553 0.0155546 
-2.58423 19.0575 -0.125494 
-2.56396 20.4537 -0.623649 
-2.54401 19.2579 -0.487623 
-2.55152 19.1678 -0.121764 
-2.5316 19.4002 -0.479677 
-2.56419 19.7431 -0.633066 
-2.57278 19.6778 0.0297214 
-2.54191 19.3257 -0.491325 
-2.53762 19.3232 -0.16814 
-2.56562 19.7217 -0.64454 
-2.54216 19.1745 -0.429533 
-2.55129 19.7052 -0.163049 
-2.57814 19.36 -0.0651637 
-2.54813 19.2576 -0.0575647 
-2.54035 20.5516 0.0177824 
-2.57429 20.5616 -0.546815 
-2.58737 19.0746 -0.3639 
-2.54826 19.1255 -0.0864489 
-2.57771 20.1628 -0.110548 
-2.57149 19.9914 -0.176457 
-2.5671 19.1441 -0.412984 
-2.56651 19.2718 -0.047438 
-2.57869 19.2027 -0.45245 
-2.54823 20.5497 -0.556178 
-2.55344 19.6018 -0.635466 
-2.57717 19.8024 -0.504269 
-2.55432 20.5653 0.0207058 
-2.54668 19.3714 -0.158414 
-2.55731 19.5419 -0.556343 
-2.55221 19.7678 0.0232966 
-2.55727 20.1032 -0.671427 
-2.53428 19.3363 -0.506429 
-2.54628 19.8298 -0.653925 
-2.5513 19.0906 -0.125237 
-2.57782 20.2986 0.0672698 
-2.5382 20.0715 0.0530177 
-2.56449 19.0826 -0.266106 
-2.53342 19.3937 -0.186914 
-2.53429 19.254 -0.454372 
-2.58052 19.2549 -0.45253 
-2.5383 19.5907 -0.586249 
-2.56866 19.3043 -0.20497 
-2.57164 20.4619 -0.617837 
-2.57163 19.8622 -0.517204 
-2.57518 19.1761 -0.120203 
-2.54955 19.2602 -0.484478 
-2.52806 20.471 -0.627084 
-2.55523 20.5769 4.99272e-05 
-2.53601 20.5056 0.0412991 
-2.56282 19.423 -0.547283 
-2.573 19.5621 -0.597723 
-2.54952 19.5416 -0.470657 
-2.55859 19.4396 -0.00425247 
-2.5337 20.1944 -0.522913 
-2.54938 19.1252 -0.503449 
-2.53101 19.0865 -0.347858 
-2.5591 19.1036 -0.435229 
-2.56034 20.516 -0.589326 
-2.58326 19.2912 -0.493502 
-2.54196 19.2898 -0.469014 
-2.55464 19.1 -0.385754 
-2.53885 19.4149 -0.524264 
-2.57839 19.2493 -0.491987 
-2.57052 20.5546 -0.584231 
-2.55488 20.5506 -0.516644 
-2.54831 19.0491 -0.138311 
-2.57138 19.2991 -0.482583 
-2.5548 19.5615 -0.491038 
-2.56779 19.1067 -0.107217 
-2.55271 19.0542 -0.132078 
-2.56776 20.4092 -0.0828172 
-2.53987 19.1087 -0.48382 
-2.57161 20.0389 0.0259901 
-2.53217 19.2432 -0.48666 
-2.55466 19.3282 -0.516706 
-2.55011 19.119 -0.365267 
-2.54586 20.4955 -0.576872 
-2.56896 19.2147 -0.464966 
-2.56491 19.3951 -0.486074 
-2.56738 20.519 -0.629112 
-2.54752 19.8168 -0.648848 
-2.53657 20.603 -0.010861 
-2.57302 19.2246 -0.469008 
-2.58134 20.5277 0.00673446 
-2.55634 20.4413 0.0503141 
-2.5735 19.2659 -0.0835447 
-2.52244 20.4975 -0.535842 
-2.53417 19.4325 -0.179333 
-2.53809 20.1732 -0.118963 
-2.5791 19.1059 -0.470667 
-2.53425 19.3621 -0.0209012 
-2.54824 19.1655 -0.227324 
-2.53478 19.1773 -0.453837 
-2.53625 19.4149 -0.547819 
-2.55329 20.081 0.0489817 
-2.57462 19.2058 -0.489343 
-2.55267 19.4444 -0.500581 
-2.52562 19.4805 0.0214776 
-2.56102 19.255 -0.167264 
-2.57254 20.1671 -0.108666 
-2.52507 20.5333 0.0276808 
-2.55778 19.179 -0.489265 
-2.55234 20.3017 -0.661447 
-2.57558 19.8628 -0.528544 
-2.58427 20.3325 -0.650549 
-2.56251 19.2334 -0.074061 
-2.56859 20.4802 -0.593483 
-2.53964 19.5112 -0.52351 
-2.52707 19.8393 -0.661476 
-2.53281 19.0934 -0.30476 
-2.55412 19.1862 -0.494965 
-2.52302 19.9166 -0.653734 
-2.55379 19.8443 -0.663866 
-2.55058 19.4415 -0.00388038 
-2.5758 20.4591 -0.509526 
-2.53663 19.9572 -0.638678 
-2.53574 20.5556 -0.568883 
-2.54205 19.9917 -0.469807 
-2.53477 19.9088 -0.496973 
-2.54057 19.1791 -0.0793962 
-2.53994 19.112 -0.238167 
-2.54987 20.5802 -0.0134115 
-2.5645 20.0707 -0.124548 
-2.56341 19.2259 -0.183349 
-2.53315 20.308 0.0273032 
-2.55867 19.999 -0.50525 
-2.52789 20.18 0.0369284 
-2.54417 20.2699 -0.671859 
-2.56499 20.2707 -0.634831 
-2.5481 20.467 -0.522722 
-2.5533 19.1927 -0.423886 
-2.53521 19.9079 -0.682992 
-2.56379 19.399 -0.533162 
-2.57888 20.195 0.0640212 
-2.56705 19.1275 -0.403867 
-2.54508 19.5732 -0.480755 
-2.5378 20.4696 -0.629494 
-2.54222 19.4687 -0.519582 
-2.53226 19.0976 -0.105778 
-2.56692 19.7448 -0.141754 
-2.56061 19.4602 -0.010964 
-2.57305 19.7748 -0.635155 
-2.56475 19.8724 -0.679496 
-2.5824 19.0285 -0.103959 
-2.55192 20.3676 0.0587834 
-2.53278 19.1459 -0.113721 
-2.55447 19.4251 -0.534599 
-2.52845 19.5265 -0.490339 
-2.53159 19.5035 -0.489642 
-2.55647 20.4466 0.0323654 
-2.55992 19.0345 -0.137423 
-2.58299 20.576 -0.0312016 
-2.56493 19.5963 0.0401214 
-2.5813 19.1313 -0.228319 
-2.55284 19.5079 -0.553995 
-2.54574 20.3352 -0.119448 
-2.53077 19.5997 0.0424737 
-2.56283 19.6196 -0.643793 
-2.57063 20.5436 0.0538837 
-2.54263 19.8112 -0.672815 
-2.54475 20.2153 -0.66079 
-2.53766 19.0841 -0.470403 
-2.53163 19.1053 -0.336079 
-2.55582 19.4652 -0.535949 
-2.54528 19.1376 -0.435542 
-2.56605 20.2258 -0.655145 
-2.52963 19.8008 -0.651508 
-2.52431 19.1051 -0.116563 
-2.54858 19.0607 -0.121124 
-2.55549 19.5858 0.0173522 
-2.55729 20.243 0.0591549 
-2.5391 20.3087 -0.66334 
-2.53833 20.44 -0.537839 
-2.53057 20.5439 -0.597188 
-2.56039 19.1032 -0.369423 
-2.55278 20.575 -0.0150632 
-2.57156 19.4821 -0.530117 
-2.57653 19.9659 -0.652676 
-2.54742 19.8312 -0.67041 
-2.53178 19.4708 -0.00611658 
-2.57458 19.7005 -0.499974 
-2.5338 20.385 -0.64777 
-2.57075 20.3424 0.0329002 
-2.53458 19.9944 -0.120197 
-2.54103 19.7726 -0.160748 
-2.53839 19.538 -0.575011 
-2.57077 19.4896 -0.527789 
-2.53308 19.1266 -0.258608 
-2.56249 19.1569 -0.473428 
-2.55776 19.5914 -0.625719 
-2.55083 19.5718 -0.617803 
-2.56445 19.07 -0.3306 
-2.54338 19.2377 -0.0687744 
-2.52079 20.0359 -0.119609 
-2.53929 19.2942 -0.183793 
-2.56214 19.0647 -0.478304 
-2.52178 19.911 -0.666043 
-2.55696 19.1251 -0.412396 
-2.53158 19.3566 -0.0290151 
-2.56546 19.7131 -0.620942 
-2.5681 19.5251 -0.52437 
-2.57104 19.7767 -0.508956 
-2.57071 19.8174 -0.15997 
-2.55082 20.0978 0.0690017 
-2.55807 19.1499 -0.210604 
-2.54544 19.3409 -0.0525057 
-2.54786 20.5535 0.0233632 
-2.555 19.1551 -0.0893127 
-2.54116 19.4141 -0.157484 
-2.56116 19.1454 -0.228772 
-2.56916 19.1385 -0.215779 
-2.57184 19.6683 -0.635331 
-2.54593 19.2872 -0.171232 
-2.55322 20.1216 -0.659171 
-2.5475 20.2098 0.0561204 
-2.55372 19.5241 0.0257543 
-2.52437 20.5155 -0.628162 
-2.55873 19.1007 -0.397027 
-2.54655 20.257 -0.635972 
-2.53539 19.7911 -0.519784 
-2.53134 19.7084 -0.629338 
-2.56472 19.7012 -0.626241 
-2.56689 19.076 -0.30997 
-2.55961 19.513 -0.506196 
-2.52894 19.8147 0.0265477 
-2.53448 19.4874 -0.558176 
-2.52546 20.4103 -0.61691 
-2.52763 19.682 0.0247221 
-2.55614 19.1142 -0.240277 
-2.56498 19.4947 -0.546185 
-2.55522 20.5588 0.035436 
-2.53707 20.5715 -0.0182868 
-2.55986 19.8931 -0.676378 
-2.55945 19.7925 -0.66447 
-2.5359 20.0678 -0.15369 
-2.55298 20.1815 0.0328405 
-2.55479 19.6548 0.0327629 
-2.54547 20.0198 -0.116712 
-2.57266 19.1372 -0.089199 
-2.55808 20.3248 -0.650383 
-2.54418 19.1164 -0.409781 
-2.53351 19.3952 -0.0261056 
-2.51538 19.9806 -0.660457 
-2.56657 19.5129 0.0226681 
-2.54018 20.4405 0.0628756 
-2.53142 19.5315 0.0264741 
-2.56148 19.6432 -0.646163 
-2.53233 20.5595 0.0112171 
-2.54171 19.53 0.0316281 
-2.57068 19.4752 -0.545538 
-2.5399 19.5836 0.0533203 
-2.5624 20.0967 -0.650785 
-2.56362 20.4074 -0.65422 
-2.54723 19.6309 0.0503999 
-2.52462 19.9967 -0.658737 
-2.54839 19.8821 -0.512125 
-2.53714 19.1976 -0.10965 
-2.5567 20.4762 -0.0565948 
-2.55843 19.8602 -0.659957 
-2.54345 20.5702 -0.0239761 
-2.55069 20.2907 -0.0864135 
-2.53347 19.3917 0.00284552 
-2.5685 20.409 -0.62615 
-2.55937 20.5617 -0.0244791 
-2.55249 19.0895 -0.248718 
-2.56834 19.3629 -0.0481552 
-2.54296 19.645 -0.545873 
-2.53049 19.5235 -0.554071 
-2.53923 19.517 -0.541305 
-2.5271 19.3392 -0.046976 
-2.54298 19.6973 -0.512342 
-2.56188 19.5907 -0.138298 
-2.54067 20.1567 -0.664038 
-2.55854 19.9131 -0.659997 
-2.53672 19.131 -0.239916 
-2.53109 19.9824 -0.530103 
-2.54403 19.9199 -0.529869 
-2.54248 19.5616 -0.56898 
-2.57224 19.3031 -0.19398 
-2.56259 19.9833 0.0550918 
-2.51301 20.1313 0.080311 
-2.56382 19.764 -0.644999 
-2.56473 19.6931 0.0633153 
-2.53079 19.8127 -0.658993 
-2.53464 20.0241 -0.12978 
-2.53514 19.1585 -0.222468 
-2.52235 19.8659 -0.131402 
-2.54417 19.1652 -0.441214 
-2.54034 19.3874 -0.02879 
-2.52587 19.2416 -0.152988 
-2.54631 19.1326 -0.407778 
-2.55707 19.0926 -0.380196 
-2.5307 20.5443 0.0229385 
-2.51724 20.2661 -0.677612 
-2.51572 19.1883 -0.0946188 
-2.52166 19.3243 -0.0661742 
-2.55249 19.5054 -0.516913 
-2.56703 19.0716 -0.305813 
-2.55651 20.5536 -0.0481731 
-2.52415 20.4502 0.019417 
-2.56904 19.5266 -0.553021 
-2.53638 19.0891 -0.448614 
-2.55474 19.8715 -0.515867 
-2.53457 20.4036 -0.513834 
-2.55074 20.4567 -0.0497261 
-2.54295 19.4158 -0.136602 
-2.56227 20.493 -0.555941 
-2.54283 19.7022 -0.66124 
-2.51519 19.3582 -0.0487093 
-2.52236 19.1869 -0.0925014 
-2.53151 20.0985 0.0558503 
-2.53936 19.4789 -0.10887 
-2.56396 20.4765 -0.558416 
-2.56381 19.5788 -0.573083 
-2.5431 20.2929 -0.651681 
-2.53572 19.5255 0.0508715 
-2.5646 19.1192 -0.45222 
-2.53051 20.0518 -0.530085 
-2.56409 19.6091 -0.130039 
-2.53196 19.555 0.0347313 
-2.53269 19.6805 -0.637822 
-2.55872 19.8811 -0.132229 
-2.54689 19.2996 -0.0459181 
-2.5525 20.4432 -0.517323 
-2.54108 20.4609 0.0455647 
-2.57802 19.5735 -0.552037 
-2.52263 20.5342 -0.58055 
-2.54188 19.6306 0.0384895 
-2.57382 19.1431 -0.104171 
-2.5479 19.8457 -0.636747 
-2.54058 19.5036 0.00601399 
-2.53447 19.5181 -0.554211 
-2.5232 20.4397 -0.613372 
-2.54811 19.6905 -0.647276 
-2.5361 19.9418 0.0502297 
-2.56867 19.1202 -0.125396 
-2.5584 19.1568 -0.213231 
-2.52857 20.2242 -0.684935 
-2.51314 20.5309 -0.569429 
-2.51941 19.7775 -0.150044 
-2.5377 19.0867 -0.456121 
-2.53903 19.4717 0.0357433 
-2.56537 19.5079 -0.566765 
-2.55324 19.7994 -0.664007 
-2.5231 19.7517 0.057854 
-2.5381 19.6316 -0.60207 
-2.51707 19.4224 -0.0165795 
-2.52515 20.4703 -0.628309 
-2.56246 19.5424 -0.563178 
-2.57594 19.591 -0.542481 
-2.537 20.2851 -0.669855 
-2.52675 19.4274 -0.013682 
-2.56842 20.5248 -0.570509 
-2.56747 20.4673 -0.0697546 
-2.55555 19.9613 -0.642617 
-2.5656 19.85 -0.128255 
-2.56199 19.1043 -0.385688 
-2.55052 19.5201 -0.57339 
-2.52117 19.2909 -0.0531025 
-2.53596 19.2441 -0.184166 
-2.55844 19.691 -0.661294 
-2.54931 20.4385 -0.0873017 
-2.53316 19.8986 0.0195966 
-2.51981 19.9509 -0.100024 
-2.55383 20.0962 -0.108572 
-2.54071 19.68 -0.147585 
-2.5491 20.338 -0.666587 
-2.57297 20.3042 -0.116075 
-2.5548 19.3638 -0.149446 
-2.54804 19.4821 -0.0194338 
-2.54057 20.5758 -0.0206205 
-2.55388 20.3512 0.0466168 
-2.52814 19.9143 -0.661455 
-2.53912 20.1499 -0.11293 
-2.52009 19.7058 -0.647713 
-2.55812 20.5034 -0.595347 
-2.53151 20.4738 -0.619136 
-2.53329 19.6736 -0.526243 
-2.51062 19.7952 -0.631948 
-2.52456 20.5361 0.000830106 
-2.53246 19.0935 -0.236249 
-2.53052 19.5578 0.00157304 
-2.55223 20.2259 -0.107589 
-2.52107 19.6201 -0.628273 
-2.51538 19.1152 -0.407403 
-2.55105 20.5474 -0.0310762 
-2.55827 19.7667 -0.55145 
-2.56747 20.524 0.00437131 
-2.50902 20.2634 -0.634363 
-2.53918 19.0994 -0.39215 
-2.55015 20.0116 -0.675865 
-2.52056 19.6142 -0.545677 
-2.52049 19.8584 -0.122922 
-2.51397 20.2663 -0.659575 
-2.55594 19.0725 -0.290345 
-2.5413 19.1046 -0.131926 
-2.54622 20.404 -0.657417 
-2.56561 19.5702 -0.538813 
-2.54525 20.3018 -0.106648 
-2.53208 20.2378 0.0551224 
-2.51893 19.7194 -0.62935 
-2.51978 19.0467 -0.441018 
-2.53049 19.0497 -0.133139 
-2.52228 20.3288 -0.657228 
-2.54846 20.2738 -0.638021 
-2.57098 19.6774 -0.529182 
-2.56617 20.3676 -0.491811 
-2.54826 19.5629 -0.568611 
-2.56668 19.2069 -0.174177 
-2.52069 19.6293 0.0470268 
-2.56791 19.5885 0.0123833 
-2.52659 19.9116 -0.658524 
-2.55101 19.9639 -0.655685 
-2.54647 20.541 -0.0100627 
-2.54698 19.1788 -0.175254 
-2.5161 19.5797 0.0304333 
-2.5352 19.5745 0.0571773 
-2.51072 20.1159 -0.642133 
-2.52593 19.0403 -0.149264 
-2.53654 19.6942 -0.637054 
-2.50233 19.6878 -0.630762 
-2.53113 20.4854 -0.602159 
-2.52968 19.0835 -0.47897 
-2.55533 20.2112 -0.676352 
-2.52453 19.0959 -0.438684 
-2.54935 20.2481 -0.51838 
-2.52056 19.2594 -0.0974609 
-2.52172 19.3939 -0.130506 
-2.55365 20.0159 0.0705491 
-2.5567 19.1288 -0.200307 
-2.55838 19.1 -0.388912 
-2.53499 20.3135 -0.652887 
-2.5101 20.4236 -0.614569 
-2.53986 19.4266 -0.106513 
-2.51364 20.345 0.044773 
-2.54463 19.0931 -0.476785 
-2.55621 20.4677 -0.530736 
-2.52628 19.506 0.0427129 
-2.5558 20.2554 -0.654341 
-2.52869 19.5509 -0.580238 
-2.54056 19.4028 -0.133037 
-2.56086 19.5839 -0.542494 
-2.53582 19.3618 -0.146554 
-2.5321 19.1192 -0.22901 
-2.53631 19.9844 -0.543604 
-2.55913 20.2702 -0.662141 
-2.53712 20.1996 -0.536462 
-2.5533 19.0769 -0.475397 
-2.56336 19.0859 -0.131109 
-2.54481 20.5249 0.0357822 
-2.55393 19.3503 -0.0370373 
-2.53467 20.4236 -0.53152 
-2.51729 20.1986 -0.547172 
-2.53574 19.962 -0.655775 
-2.52397 19.0991 -0.233605 
-2.55045 19.645 -0.521452 
-2.54338 19.6115 -0.617728 
-2.54931 20.1271 0.0747022 
-2.50816 19.1227 -0.184097 
-2.55558 19.4638 -0.0211936 
-2.52043 19.9168 -0.674207 
-2.52716 19.841 -0.648332 
-2.51611 19.5978 -0.61871 
-2.51973 19.9205 0.0262812 
-2.54002 19.4588 0.0121634 
-2.53257 19.4542 -0.157987 
-2.51065 19.1703 -0.0821241 
-2.53969 19.233 -0.111337 
-2.54294 19.0483 -0.298278 
-2.54476 20.396 -0.650057 
-2.52093 19.0326 -0.122514 
-2.5517 20.4573 -0.634328 
-2.53634 19.3312 -0.178082 
-2.52903 19.7951 -0.65658 
-2.55087 19.1103 -0.449519 
-2.52916 19.5463 0.0215491 
-2.53358 19.7319 -0.0979693 
-2.52032 19.837 -0.565278 
-2.53407 20.5698 -0.0421547 
-2.56426 20.1821 0.0484168 
-2.55008 20.4833 -0.606584 
-2.56507 19.0804 -0.189194 
-2.52796 20.0555 0.0818968 
-2.51452 19.2716 -0.0932107 
-2.5147 19.6515 -0.570389 
-2.52614 19.8549 0.0289654 
-2.53163 19.7839 -0.565222 
-2.50657 19.8995 -0.659156 
-2.523 19.1161 -0.0911817 
-2.52978 19.6414 0.0334193 
-2.56031 19.7901 -0.112204 
-2.51434 19.6466 -0.630164 
-2.52296 19.2582 -0.0987916 
-2.55822 20.1675 -0.671628 
-2.56123 20.1146 -0.678313 
-2.55281 20.2862 -0.0693582 
-2.53914 20.3716 -0.517337 
-2.50997 19.5382 0.00912678 
-2.52763 19.1932 -0.0999916 
-2.5327 20.3439 -0.629867 
-2.52016 19.7828 -0.649168 
-2.52062 19.8625 -0.562005 
-2.55276 19.6194 0.0399776 
-2.54471 19.5301 -0.0994746 
-2.54592 19.0766 -0.315671 
-2.53303 19.9571 -0.670149 
-2.5604 19.1614 -0.187901 
-2.54192 20.0364 -0.64997 
-2.54964 20.4001 -0.0990013 
-2.51768 20.2024 -0.0949012 
-2.50442 19.9526 -0.685283 
-2.51777 20.0172 -0.691184 
-2.51618 20.3567 -0.655131 
-2.5105 19.0888 -0.427507 
-2.54204 19.0526 -0.462011 
-2.52545 19.1683 -0.119501 
-2.5662 19.7218 -0.533901 
-2.51141 19.7306 -0.110748 
-2.53766 19.4123 -0.0136238 
-2.52807 19.0567 -0.351077 
-2.53765 19.5725 0.0208449 
-2.5316 19.3652 -0.068082 
-2.51042 19.7486 0.0786271 
-2.51122 19.7565 -0.625762 
-2.55765 19.8437 -0.65506 
-2.56407 19.2141 -0.122216 
-2.50856 19.3306 -0.116012 
-2.55183 19.7779 0.0687391 
-2.53474 20.3719 -0.5232 
-2.51853 19.975 -0.643006 
-2.51102 20.1025 0.0611508 
-2.52871 20.1207 -0.672757 
-2.54662 20.5025 -0.0302914 
-2.52656 19.0989 -0.128162 
-2.50338 19.1132 -0.218718 
-2.51533 19.411 0.00307689 
-2.51758 19.8794 -0.132586 
-2.52453 19.9404 -0.559139 
-2.53759 19.6634 -0.593789 
-2.50324 20.4006 -0.506179 
-2.51373 19.6501 0.0369132 
-2.50302 19.9587 0.0549023 
-2.53034 20.3262 0.0557085 
-2.50227 20.5585 0.0267648 
-2.55948 20.3011 -0.660613 
-2.55276 19.1317 -0.120776 
-2.53212 19.4378 -0.124993 
-2.52907 20.4848 -0.617911 
-2.51369 19.3283 -0.14064 
-2.53086 19.0722 -0.111824 
-2.50651 20.0793 -0.0928767 
-2.51671 20.4088 -0.620986 
-2.55315 19.2504 -0.153051 
-2.49717 20.5082 0.0496035 
-2.54617 19.944 -0.696914 
-2.50508 19.6726 -0.562313 
-2.52133 19.5443 0.0507872 
-2.50635 20.2046 -0.664791 
-2.53639 19.6415 -0.569296 
-2.52653 19.1554 -0.142386 
-2.5244 19.2062 -0.0890609 
-2.52892 20.5075 -0.589504 
-2.51664 20.1106 -0.530319 
-2.53411 20.5096 -0.61839 
-2.52799 19.168 -0.132005 
-2.53354 20.0347 0.0702022 
-2.55861 20.4438 -0.616831 
-2.51277 20.3699 -0.618954 
-2.55787 19.0863 -0.120163 
-2.54314 20.351 -0.660635 
-2.5265 20.2136 -0.663636 
-2.54163 19.8333 0.0347384 
-2.5436 20.1308 -0.553833 
-2.54671 19.7886 0.0325207 
-2.55371 20.497 -0.577061 
-2.51416 19.1511 -0.114159 
-2.52785 20.0318 -0.135877 
-2.5532 19.0668 -0.322194 
-2.54824 20.4964 0.0454091 
-2.54361 20.4625 -0.607386 
-2.54169 19.7738 -0.650504 
-2.5116 19.1347 -0.145715 
-2.51179 19.2965 -0.163055 
-2.5585 19.3561 -0.0562937 
-2.5512 19.8386 -0.112466 
-2.51173 19.0477 -0.279157 
-2.55446 20.5085 0.0120589 
-2.52828 19.7087 -0.541184 
-2.5392 20.3638 -0.663347 
-2.50831 20.4753 -0.613971 
-2.53265 19.7305 0.0391276 
-2.50355 19.8339 -0.661756 
-2.51871 19.8251 -0.104474 
-2.5033 19.5934 0.0369932 
-2.50208 20.127 -0.653061 
-2.55835 20.2341 -0.653096 
-2.52466 20.4381 0.0721944 
-2.52045 19.9389 -0.655249 
-2.54189 20.5042 -0.0451996 
-2.5503 19.9618 -0.527776 
-2.53272 19.2714 -0.13338 
-2.5554 19.6497 0.0371172 
-2.50978 19.7466 -0.555366 
-2.55778 20.2398 -0.116862 
-2.50572 19.6369 -0.593398 
-2.52386 19.1375 -0.177034 
-2.51926 19.3802 -0.152471 
-2.53359 19.6071 0.046317 
-2.55302 20.3244 -0.661243 
-2.51234 20.3682 -0.547453 
-2.50897 20.0063 -0.693043 
-2.55217 20.0873 -0.682737 
-2.55149 20.4272 -0.565919 
-2.53184 20.0876 -0.650087 
-2.52817 20.4168 0.0655734 
-2.53241 19.4294 -0.0214754 
-2.50843 20.3289 -0.0561346 
-2.53667 20.5039 0.0576105 
-2.54078 20.0345 -0.533572 
-2.525 19.4092 -0.0530242 
-2.51659 20.137 -0.68078 
-2.50773 20.0135 -0.674688 
-2.52464 20.1239 -0.678948 
-2.51297 19.0667 -0.127691 
-2.51792 20.5169 -0.0533697 
-2.55914 19.9168 -0.681388 
-2.54711 19.244 -0.0848771 
-2.52686 19.0932 -0.224052 
-2.50183 19.9487 -0.656536 
-2.5528 19.0712 -0.378026 
-2.52562 20.1702 -0.669883 
-2.5288 19.6234 -0.615915 
-2.54201 20.3238 0.0837062 
-2.52615 20.555 0.00571739 
-2.51386 19.8128 -0.648299 
-2.52594 20.2756 -0.680703 
-2.53491 19.6514 -0.583404 
-2.52331 19.7977 -0.554014 
-2.5243 19.8816 -0.11869 
-2.54587 20.1362 -0.668843 
-2.51265 20.3922 0.048902 
-2.53402 19.2493 -0.167091 
-2.54789 20.3211 -0.660964 
-2.53164 19.3447 -0.144747 
-2.54869 19.652 -0.586613 
-2.54531 19.8199 -0.537291 
-2.55514 20.3678 -0.659466 
-2.50751 20.3675 -0.544554 
-2.53458 19.1871 -0.0889135 
-2.53245 19.0669 -0.202871 
-2.50525 19.071 -0.293055 
-2.53577 20.385 0.0635014 
-2.53521 19.9997 -0.663766 
-2.50473 20.2906 -0.675119 
-2.52862 20.2281 -0.685232 
-2.51084 19.4093 -0.137261 
-2.51155 19.9538 -0.679492 
-2.50684 20.4855 -0.0558202 
-2.53952 19.146 -0.118069 
-2.51765 20.2603 -0.631093 
-2.54176 19.5373 -0.11887 
-2.5427 19.1588 -0.158942 
-2.50554 19.3249 -0.136248 
-2.53343 20.3741 -0.529692 
-2.50535 19.9403 -0.554758 
-2.52688 20.0455 -0.643937 
-2.51839 20.0442 -0.666219 
-2.54627 19.7807 -0.579228 
-2.54841 19.6337 -0.61928 
-2.50639 19.8009 -0.666999 
-2.50479 20.143 -0.0662409 
-2.49966 19.3051 -0.121998 
-2.53592 19.9624 -0.682955 
-2.49385 20.4426 -0.626131 
-2.54147 19.4985 0.0299426 
-2.51667 20.5525 -0.0232392 
-2.54985 19.4137 -0.060308 
-2.52302 20.4953 0.0597948 
-2.55062 20.1985 -0.0711348 
-2.54729 19.6787 -0.632027 
-2.54485 19.0381 -0.167005 
-2.52778 19.1873 -0.177298 
-2.53085 20.0325 -0.0938823 
-2.5222 20.3946 -0.542519 
-2.53936 20.0379 -0.646904 
-2.52246 19.65 -0.568299 
-2.5304 19.1535 -0.161036 
-2.50504 19.0721 -0.236066 
-2.5495 20.2117 -0.651552 
-2.54332 20.2092 -0.669453 
-2.51655 19.2202 -0.157859 
-2.53321 20.1265 0.0437184 
-2.50014 20.226 -0.671554 
-2.51834 19.0529 -0.244229 
-2.55841 19.576 0.0433769 
-2.54367 20.3596 0.0329129 
-2.52587 19.1563 -0.163007 
-2.54764 20.41 -0.0538109 
-2.53298 19.3072 -0.119484 
-2.53555 19.8259 -0.648284 
-2.54746 19.4091 -0.118501 
-2.52216 19.3954 -0.0899153 
-2.51485 19.3527 -0.0582784 
-2.51086 19.3649 -0.0752232 
-2.51957 19.7706 -0.621719 
-2.52053 20.2266 0.0603222 
-2.53749 20.5371 -0.018086 
-2.52903 20.0033 -0.694818 
-2.51497 20.3894 -0.640264 
-2.52408 19.24 -0.109781 
-2.51286 19.6976 -0.592983 
-2.50337 19.515 -0.090313 
-2.5398 19.9256 -0.672703 
-2.50757 20.2714 0.0680574 
-2.53415 20.153 -0.650448 
-2.55033 19.9341 -0.654117 
-2.54281 20.4007 0.0686688 
-2.50786 19.1957 -0.131279 
-2.55293 19.6566 -0.58475 
-2.53815 19.2992 -0.131621 
-2.50248 19.8193 -0.669412 
-2.52372 20.4577 0.0411901 
-2.50994 20.0916 0.0418305 
-2.52281 19.1946 -0.151275 
-2.55159 19.79 -0.0957264 
-2.5112 19.1203 -0.122381 
-2.54952 19.037 -0.374818 
-2.50534 19.702 -0.126577 
-2.50973 20.3 0.0636377 
-2.51326 20.1343 -0.66477 
-2.55003 19.7425 -0.645581 
-2.52555 19.4567 -0.13115 
-2.53123 19.234 -0.10972 
-2.539 19.0888 -0.181184 
-2.50923 19.5861 0.0500378 
-2.50609 19.163 -0.141888 
-2.51439 19.6968 -0.55932 
-2.49894 20.0079 -0.666534 
-2.49742 19.6905 -0.593743 
-2.52792 19.6432 -0.083577 
-2.53687 19.3501 -0.0457425 
-2.52289 19.0646 -0.106595 
-2.50276 19.1735 -0.121311 
-2.52033 19.0625 -0.20906 
-2.51178 19.1139 -0.158014 
-2.5203 19.9717 0.0594257 
-2.51092 19.1091 -0.160477 
-2.54636 19.1613 -0.139168 
-2.54516 19.0379 -0.333952 
-2.49719 20.0291 0.056305 
-2.5244 19.7458 -0.608339 
-2.53166 19.2662 -0.10222 
-2.538 19.1854 -0.114972 
-2.52562 20.2789 0.0737526 
-2.51051 19.188 -0.118902 
-2.53675 20.1833 -0.682887 
-2.52658 19.6669 0.077796 
-2.53052 19.6987 -0.602792 
-2.51393 19.4639 0.00423942 
-2.50223 19.8727 -0.552228 
-2.50356 19.2935 -0.0882585 
-2.5097 19.7003 -0.635478 
-2.50895 20.3545 -0.631988 
-2.50149 19.3375 -0.114918 
-2.5257 19.4967 0.021705 
-2.52391 19.2432 -0.125264 
-2.52348 19.328 -0.0651754 
-2.49968 19.3855 -0.0553386 
-2.53403 19.1156 -0.131904 
-2.54788 19.2688 -0.142334 
-2.51589 19.9269 0.079708 
-2.52646 19.9712 0.0527822 
-2.5173 19.4844 -0.0109913 
-2.50194 19.3969 -0.0565934 
-2.51396 19.8495 -0.579984 
-2.49544 19.6644 0.0431171 
-2.52233 19.5371 -0.0921859 
-2.51169 19.2927 -0.0804089 
-2.53349 19.1047 -0.186229 
-2.51821 19.725 0.0541535 
-2.52348 19.4113 -0.0869804 
-2.53043 19.3262 -0.0736517 
-2.51416 20.1251 -0.0736569 
-2.53186 20.105 -0.70574 
-2.52913 20.1375 -0.669763 
-2.50635 20.2973 -0.637993 
-2.50665 19.8232 -0.670512 
-2.50561 20.4573 -0.0474677 
-2.54576 19.8906 -0.656779 
